40.15 44.45 44.12 42.99 46.54 47.58 47.19 49.18 48.68 54.12 55.23 54.48 54.72 59.19 57.95 60.22 56.96 53.78 50.99 47.98 43.44 40.67 35.21 29.22 26.10 21.01 17.68 17.62 10.90  9.02  2.40  3.81  1.01 
40.37 40.36 43.97 44.32 43.58 44.39 46.21 49.38 50.30 54.25 53.49 52.62 58.35 57.18 57.10 58.82 56.22 51.35 50.70 49.29 40.25 37.65 33.59 31.29 28.30 22.26 19.85 15.65 10.54  7.45  4.82  2.56  0.46 
40.23 44.37 43.94 45.06 45.02 46.60 50.84 49.14 52.04 52.08 51.56 55.93 56.79 55.03 59.28 57.06 56.58 51.16 47.76 45.86 40.51 34.98 35.96 32.47 24.15 21.16 21.69 13.37 12.31  7.20  1.99  3.82  1.08 
40.44 43.26 43.96 45.73 45.52 45.33 48.60 50.35 53.91 52.53 51.05 55.45 56.20 57.26 56.83 61.06 54.47 53.79 46.88 48.79 42.18 37.80 36.79 28.93 27.65 24.61 16.08 16.42  8.74 10.07  6.10  1.21 -0.10 
39.28 43.50 43.53 46.39 44.91 45.77 48.13 50.51 52.93 53.19 52.81 54.27 58.23 59.33 61.04 57.75 57.81 54.55 50.06 45.31 43.06 38.07 34.86 28.72 27.13 21.95 15.72 14.18 11.27  9.13  7.14  0.84 -0.23 
43.63 43.46 44.74 47.73 46.37 46.67 48.64 52.39 50.59 53.83 51.18 56.36 56.55 54.92 57.75 62.16 58.52 54.82 49.37 44.85 44.22 39.98 31.73 31.95 23.63 22.47 19.65 13.30 10.65 10.01  2.89  1.15  0.02 
40.68 41.14 42.37 46.80 46.39 48.73 48.62 49.26 48.99 53.31 55.05 53.02 57.73 54.73 59.72 62.23 58.91 50.27 50.29 46.12 43.57 37.51 35.04 29.69 24.86 20.90 16.06 13.76 10.58  8.14  4.19  0.58 -0.26 
43.28 39.92 43.98 45.78 46.08 49.13 46.14 49.49 49.47 54.05 50.82 55.46 55.33 57.28 57.53 62.00 55.49 51.86 47.04 44.73 42.05 36.12 35.54 30.77 27.20 25.04 17.33 13.88  9.85 11.04  5.76 -0.62 -0.79 
44.66 41.24 44.85 45.78 47.66 48.61 49.80 50.58 48.52 52.80 56.30 52.88 55.32 55.42 57.92 61.62 55.36 52.03 46.76 46.57 41.76 39.96 32.19 28.10 24.92 22.75 19.07 14.06 11.46  5.83  2.57  1.18  0.02 
42.92 41.64 43.41 42.67 48.08 48.48 47.54 46.86 48.45 50.27 52.02 54.00 56.74 56.10 56.00 62.32 56.75 53.76 45.46 45.15 39.42 35.64 30.94 28.96 22.93 22.85 19.45 13.26 12.83  8.75  1.27  0.42 -0.27 
41.64 42.08 42.24 46.24 44.41 47.04 48.31 51.00 53.31 51.96 52.79 56.02 56.95 55.75 59.67 60.96 54.63 49.42 45.86 47.55 41.13 34.04 32.28 28.89 24.31 19.11 17.92 17.41 12.25  6.97  1.46 -0.41 -0.56 
40.70 42.82 45.47 44.95 48.55 46.39 46.94 49.60 53.15 53.24 55.61 57.68 55.30 57.13 59.01 62.24 53.99 54.91 45.81 43.42 38.13 40.13 31.88 27.64 22.89 20.23 19.54 14.55 11.14  8.49  5.07  3.35  0.83 
41.53 44.48 46.33 48.16 44.93 50.44 50.98 48.03 50.00 52.86 53.02 52.90 53.75 59.04 59.32 61.89 53.93 48.50 48.41 41.90 41.77 38.87 31.39 33.36 23.90 18.85 17.21 14.75  9.86  9.62  2.52  2.03  0.32 
40.78 41.44 46.54 47.81 44.85 50.24 47.38 47.62 53.15 54.76 54.01 54.38 57.28 58.41 61.21 58.92 56.58 50.11 47.31 45.24 38.73 34.60 32.18 31.52 25.10 20.07 18.82 13.61  8.57  5.82  6.00  2.81  0.59 
40.88 42.92 44.67 47.12 48.63 48.33 47.41 48.86 50.86 53.95 54.17 54.02 54.69 59.30 57.14 60.23 56.39 52.02 46.81 43.70 40.52 34.82 30.73 29.38 24.17 22.14 18.37 18.07 10.05  7.72  2.09 -0.28 -0.57 
41.25 42.08 45.49 43.78 46.40 48.69 51.30 49.50 53.42 49.59 54.10 53.83 58.19 59.60 56.67 60.69 53.91 52.49 49.35 44.80 42.40 40.77 34.49 32.07 25.87 22.33 18.71 18.10 11.01  6.89  6.48  2.38  0.42 
39.49 42.54 43.75 46.47 45.09 44.03 48.45 47.01 47.58 49.38 52.12 52.30 53.38 54.25 54.37 57.13 54.58 52.50 49.41 47.14 42.84 39.59 35.77 29.96 27.37 23.89 19.11 16.05 11.32 10.27  7.68  1.66  0.05 
39.79 41.79 42.84 41.95 47.44 49.19 47.24 50.96 52.01 50.31 49.24 55.20 54.01 53.85 56.66 57.09 55.25 52.84 48.79 44.51 38.56 39.26 32.33 32.26 28.61 22.02 17.72 15.61 11.24 10.84  7.01  3.37  0.80 
43.92 43.68 43.63 46.26 46.10 46.12 47.23 47.99 50.20 48.36 50.15 50.37 54.44 57.02 55.09 59.95 52.46 50.86 45.98 41.72 39.10 33.83 30.75 28.02 24.74 21.91 17.32 15.16  8.84  6.32  2.66  1.39  0.09 
42.61 43.97 45.62 43.52 44.31 48.52 47.37 49.22 47.02 51.41 52.48 50.08 51.87 56.35 56.25 55.04 51.94 49.46 50.06 43.78 40.07 37.24 35.06 30.28 27.86 20.23 16.59 17.53 10.83  8.42  3.24  0.10 -0.46 
44.50 41.01 42.83 43.09 45.26 44.40 44.77 46.52 48.84 49.11 52.96 52.96 54.06 57.92 58.30 55.71 52.10 50.19 48.83 46.43 41.70 35.70 34.58 31.69 28.62 19.98 16.34 14.13  9.73  5.64  4.98 -1.10 -0.93 
39.67 42.18 46.31 45.52 45.61 47.99 47.55 50.21 51.73 50.05 54.91 51.99 52.24 54.23 56.51 58.87 54.97 52.23 46.61 42.04 41.48 37.20 33.49 32.84 25.44 24.40 18.17 12.05 12.06  9.67  4.80  0.72 -0.19 
41.78 41.49 43.32 47.02 45.29 48.44 48.68 50.03 50.77 50.65 50.28 55.51 56.70 57.36 59.22 60.15 55.69 48.87 48.32 42.46 40.19 35.52 33.59 31.72 25.62 20.14 20.29 13.59 11.30  9.72  4.16 -0.04 -0.54 
42.20 44.62 41.82 43.53 45.25 45.31 45.95 49.67 51.50 50.94 51.29 51.89 56.98 56.33 58.44 57.06 55.77 51.63 50.37 42.32 40.45 38.14 31.84 27.72 24.07 22.67 20.80 17.72 13.23  8.68  1.98  1.49  0.14 
41.46 44.30 41.86 43.11 47.76 46.81 50.06 50.59 54.05 54.44 53.09 54.76 55.28 54.26 58.40 56.43 54.19 52.42 46.69 41.68 37.33 35.19 32.67 29.86 24.88 23.56 16.71 16.28 12.86  9.39  3.71  1.32  0.00 
39.80 45.47 42.73 43.92 44.14 48.61 51.06 48.73 51.06 49.74 51.34 53.31 55.79 55.10 56.81 57.11 54.47 52.97 49.58 44.04 39.36 36.23 30.67 28.50 26.58 22.12 16.05 13.35 13.76  6.86  2.40 -0.72 -0.75 
38.61 40.16 41.75 44.75 46.96 47.28 49.77 52.04 52.69 51.34 52.23 55.46 57.68 55.59 58.74 60.76 54.95 52.38 49.68 44.29 38.90 38.07 31.53 30.69 23.80 18.93 19.73 12.92  9.27  8.64  4.02 -1.59 -1.12 
41.34 44.23 42.50 42.62 45.57 48.99 48.92 47.28 51.27 51.47 53.20 51.99 56.81 56.52 59.93 58.63 55.60 51.03 46.72 45.33 41.55 37.09 30.75 27.81 26.18 19.95 18.44 14.96 14.07 10.94  2.35  1.30  0.08 
42.85 41.34 41.49 44.29 48.38 47.28 48.75 48.18 51.12 53.90 51.46 56.05 58.26 58.59 56.66 59.77 57.14 50.15 45.57 44.90 39.23 34.59 31.77 32.53 24.62 22.94 16.30 13.58 13.45  7.80  6.35  2.19  0.33 
38.76 44.59 45.11 43.69 46.49 45.84 50.94 48.37 53.03 54.34 53.32 53.31 56.37 55.71 57.17 58.00 52.38 51.46 46.27 43.53 37.79 36.75 34.67 27.64 23.23 20.98 17.80 12.88  9.89  7.47  2.06 -0.71 -0.74 
42.02 43.94 45.37 45.73 44.90 45.51 50.51 49.75 51.30 50.77 50.77 56.12 58.95 57.25 60.29 62.20 55.68 52.56 50.78 47.33 42.14 37.92 35.16 28.14 27.43 20.70 19.65 14.41 10.65  7.26  1.61  3.77  1.10 
44.17 40.14 44.02 45.42 46.23 48.77 48.24 52.44 48.60 54.17 52.56 54.24 54.53 59.19 56.53 58.76 58.18 54.44 50.76 48.66 40.90 38.93 34.06 33.68 27.59 24.82 21.21 13.61 12.32  5.82  3.21 -1.17 -0.97 
41.77 40.96 43.20 44.68 45.75 47.48 47.97 50.54 49.65 52.73 52.72 54.23 54.95 57.76 57.20 59.11 58.87 54.85 51.18 47.88 42.86 39.58 35.64 32.91 28.63 24.95 21.49 15.83 13.49  8.37  5.15  0.91  0.00 
